0.6389394,0.347072,0.0139886085,0,0,1,0
0.6460188,0.3358154,0.018165788,0,1,0,0
0.6129954,0.36533013,0.021674488,0,0,1,0
0.610744,0.36653292,0.022723053,0,0,1,0
0.6093496,0.36559105,0.02505932,0,0,1,0
0.60800976,0.36970317,0.022287054,0,0,1,0
0.59889203,0.37988263,0.021225322,0,0,1,0
0.5835739,0.39929265,0.017133392,0,0,1,0
0.5933575,0.3881448,0.018497614,0,0,1,0
0.5727584,0.4102103,0.017031288,0,0,1,0
0.58177084,0.40011036,0.01811891,0,0,1,0
0.55741405,0.42184654,0.02073937,0,0,1,0
0.5971543,0.38272882,0.02011682,0,0,1,0
0.6151066,0.37123168,0.0136616705,0,0,1,0
0.61118305,0.37633166,0.012485296,0,0,1,0
0.6332727,0.35321042,0.013516937,0,0,1,0
0.62729084,0.3612287,0.011480426,0,0,1,0
0.62701035,0.3580617,0.014927976,0,0,1,0
0.6282822,0.3559024,0.015815398,0,0,1,0
0.6102195,0.37734857,0.0124319205,0,0,1,0
0.6169001,0.36613986,0.016960032,0,0,1,0
0.62453413,0.35561487,0.019851036,0,0,1,0
0.64635676,0.3347092,0.018934062,0,0,1,0
0.649156,0.332578,0.018266037,0,0,1,0
0.6330976,0.34635448,0.02054799,0,0,1,0
0.624878,0.35285795,0.022264099,0,0,1,0
0.6268991,0.34975505,0.023345815,0,0,1,0
0.65584797,0.32381752,0.020334542,0,0,1,0
0.5996762,0.37259406,0.027729709,0,0,1,0
0.59979796,0.3741243,0.026077842,0,0,1,0
0.6095654,0.3585266,0.0319081,0,0,1,0
0.6406576,0.3358882,0.023454191,0,0,1,0
0.62595415,0.34590122,0.028144615,0,0,1,0
0.63881737,0.33818385,0.02299875,0,0,1,0
0.66802186,0.31581616,0.016161943,0,0,1,0
0.6595756,0.32633337,0.014091107,0,0,1,0
0.6735885,0.30833328,0.018078197,0,0,1,0
0.66442853,0.31740543,0.0181661,0,0,1,0
0.70028937,0.28421587,0.015494737,0,0,1,0
0.68653744,0.3003903,0.013072322,0,0,1,0
0.68553466,0.30509478,0.009370571,0,0,1,0
0.7006571,0.2902194,0.009123409,0,0,1,0
0.7119718,0.27595115,0.012077012,0,0,1,0
0.70118135,0.28468525,0.014133463,0,0,1,0
0.7066018,0.28070274,0.0126954,0,0,1,0
0.6679632,0.3154608,0.016575962,0,0,1,0
0.6913897,0.29607445,0.012535816,0,0,1,0
0.69343466,0.2962971,0.010268227,0,0,1,0
0.6776953,0.31088927,0.011415373,0,0,1,0
0.68364614,0.30499548,0.011358435,0,0,1,0
0.702924,0.2861922,0.010883788,0,0,1,0
0.69554424,0.29442602,0.010029672,0,0,1,0
0.70998174,0.28073084,0.009287368,0,0,1,0
0.71563244,0.27558184,0.008785756,0,0,1,0
0.70520765,0.28606498,0.008727386,0,0,1,0
0.6850719,0.30558065,0.009347423,0,0,1,0
0.6819145,0.30718753,0.010898001,0,0,1,0
0.6627062,0.32455152,0.012742282,0,0,1,0
0.66796833,0.32070157,0.011330089,0,0,1,0
0.65178066,0.33353367,0.014685694,0,0,1,0
0.62208515,0.3631801,0.014734711,0,0,1,0
0.63773245,0.3491896,0.0130779715,0,0,1,0
0.6215021,0.36712965,0.011368226,0,0,1,0
0.59478045,0.3879038,0.01731573,0,0,1,0
0.62204677,0.36522892,0.012724308,0,0,1,0
0.6119731,0.36952487,0.018502016,0,0,1,0
0.59250593,0.39270607,0.014788063,0,0,1,0
0.5840406,0.40140766,0.014551755,0,0,1,0
0.5672965,0.41411942,0.018584037,0,0,1,0
0.5898026,0.38680953,0.023387877,0,0,1,0
0.5536477,0.42330295,0.023049336,0,0,1,0
0.57867956,0.38974586,0.031574603,0,0,1,0
0.57232696,0.39627534,0.031397663,0,0,1,0
0.5831627,0.3915978,0.025239503,0,0,1,0
0.57538307,0.39105925,0.033557683,0,0,1,0
0.57657844,0.39469644,0.028725093,0,0,1,0
0.56185794,0.4135768,0.024565263,0,0,1,0
0.573005,0.40670243,0.0202926,0,0,1,0
0.5300842,0.4504416,0.019474251,0,0,1,0
0.5707077,0.40862104,0.02067126,0,0,1,0
0.5513639,0.43268618,0.015949948,0,0,1,0
0.56582737,0.4160874,0.018085191,0,0,1,0
0.6166567,0.36586493,0.017478293,0,0,1,0
0.61307174,0.3663419,0.02058642,0,0,1,0
0.5950533,0.38473234,0.020214394,0,0,1,0
0.5718866,0.408358,0.019755429,0,0,1,0
0.57793367,0.39774203,0.02432421,0,0,1,0
0.5934182,0.3843272,0.022254597,0,0,1,0
0.58360326,0.39302167,0.0233751,0,0,1,0
0.60490894,0.374751,0.020340037,0,0,1,0
0.5967492,0.38276914,0.02048165,0,0,1,0
0.59604686,0.3820025,0.021950573,0,0,1,0
0.635531,0.3520386,0.012430389,0,0,1,0
0.6152723,0.3717231,0.013004648,0,0,1,0
0.6360706,0.34987354,0.014055851,0,0,1,0
0.65601283,0.3330286,0.010958553,0,0,1,0
0.64758575,0.33973554,0.012678744,0,0,1,0
0.65831137,0.3300288,0.011659753,0,0,1,0
0.6805539,0.3100938,0.009352317,0,0,1,0
0.6737539,0.31383345,0.01241266,0,0,1,0
0.69188625,0.29940224,0.008711527,0,0,1,0
0.70109004,0.29110223,0.0078077237,0,0,1,0
0.732443,0.26079068,0.0067663034,0,0,1,0
0.72661984,0.2657979,0.007582308,0,0,1,0
0.7184458,0.26921964,0.012334534,0,0,1,0
0.7275471,0.2622673,0.010185574,0,0,1,0
0.7084242,0.2799664,0.011609449,0,0,1,0
0.70376104,0.28551129,0.010727646,0,0,1,0
0.7142932,0.27507052,0.01063632,0,0,1,0
0.7215042,0.26682195,0.011673786,0,0,1,0
0.73195034,0.25477853,0.013271109,0,0,1,0
0.6845233,0.30202216,0.013454609,0,0,1,0
0.72971076,0.25567934,0.014609943,0,0,1,0
0.7179836,0.26862776,0.01338862,0,0,1,0
0.75072426,0.2371791,0.012096603,0,0,1,0
0.74199617,0.2458172,0.012186701,0,0,1,0
0.73827744,0.25116852,0.010554046,0,0,1,0
0.7245665,0.264449,0.010984516,0,0,1,0
0.7112059,0.27539465,0.0133994715,0,0,1,0
0.73281807,0.2535721,0.013609826,0,0,1,0
0.7186528,0.26829755,0.013049701,0,0,1,0
0.73986524,0.25051558,0.009619134,0,0,1,0
0.72881657,0.26089925,0.010284206,0,0,1,0
0.7365354,0.25402433,0.009440377,0,0,1,0
0.752441,0.23613994,0.011419124,0,0,1,0
0.7438823,0.24779108,0.008326641,0,0,1,0
0.7715235,0.22050364,0.0079729175,0,0,1,0
0.7627094,0.22794902,0.009341595,0,0,1,0
0.7168313,0.2749602,0.0082084965,0,0,1,0
0.70698947,0.28417552,0.008835063,0,0,1,0
0.72992915,0.26030266,0.0097681405,0,0,1,0
0.75031155,0.2397708,0.009917547,0,0,1,0
0.7564937,0.23397435,0.009531977,0,0,1,0
0.73328656,0.2581557,0.008557831,0,0,1,0
0.7232949,0.26847312,0.0082319565,0,0,1,0
0.724665,0.2675081,0.007826922,0,0,1,0
0.722974,0.26914623,0.007879779,0,0,1,0
0.73322994,0.25750926,0.009260801,0,0,1,0
0.7429634,0.24827881,0.00875778,0,0,1,0
0.736659,0.2566596,0.006681334,0,0,1,0
0.72204155,0.27147123,0.0064872648,0,0,1,0
0.73798114,0.25525773,0.0067611476,0,0,1,0
0.70697063,0.2826582,0.010371172,0,0,1,0
0.7192217,0.270612,0.01016629,0,0,1,0
0.6955819,0.2914954,0.012922715,0,0,1,0
0.7156751,0.27387214,0.010452745,0,0,1,0
0.71827155,0.27252597,0.009202542,0,0,1,0
0.6758727,0.3126801,0.011447223,0,0,1,0
0.6623385,0.32139313,0.01626832,0,0,1,0
0.6901842,0.2950578,0.014758093,0,0,1,0
0.6583878,0.32701728,0.0145949265,0,0,1,0
0.6540236,0.33221886,0.013757571,0,0,1,0
0.6567069,0.32943088,0.013862248,0,0,1,0
0.64447,0.34170762,0.01382234,0,0,1,0
0.64440614,0.34181985,0.013773973,0,0,1,0
0.63937914,0.34756923,0.013051682,0,0,1,0
0.641178,0.34906963,0.009752305,0,0,1,0
0.6331576,0.35611337,0.010728977,0,0,1,0
0.66742307,0.32290068,0.009676198,0,0,1,0
0.6752419,0.31391534,0.010842876,0,0,1,0
0.6598821,0.32768047,0.012437399,0,0,1,0
0.6430456,0.34257233,0.014382053,0,0,1,0
0.6607402,0.32695606,0.012303785,0,0,1,0
0.62885356,0.35791686,0.013229585,0,0,1,0
0.6634715,0.32592556,0.010602987,0,0,1,0
0.6469727,0.341503,0.011524321,0,0,1,0
0.66590333,0.3251263,0.008970404,0,0,1,0
0.6599136,0.32779208,0.01229426,0,0,1,0
0.65766984,0.32868138,0.013648702,0,0,1,0
0.66434354,0.32615688,0.009499661,0,0,1,0
0.66762155,0.32197446,0.010403987,0,0,1,0
0.6632839,0.32580158,0.010914531,0,0,1,0
0.65912044,0.33054,0.010339527,0,0,1,0
0.67430663,0.31609678,0.009596482,0,0,1,0
0.6605256,0.3282072,0.011267203,0,0,1,0
0.6777525,0.3114926,0.01075489,0,0,1,0
0.6549907,0.3323205,0.012688749,0,0,1,0
0.6645406,0.32206818,0.013391227,0,0,1,0
0.65297,0.3333177,0.013712334,0,0,1,0
0.67009664,0.31761497,0.012288368,0,0,1,0
0.7357907,0.25438547,0.009823776,0,0,1,0
0.7090865,0.28065413,0.010259376,0,0,1,0
0.6866082,0.30367094,0.009720883,0,0,1,0
0.67482835,0.31149045,0.013681238,0,0,1,0
0.67653334,0.3107193,0.012747382,0,0,1,0
0.7058575,0.2841224,0.010020019,0,0,1,0
0.7016895,0.28977132,0.008539161,0,0,1,0
0.6955296,0.29792783,0.0065425653,0,0,1,0
0.7178418,0.274631,0.007527219,0,0,1,0
0.71592057,0.27869394,0.005385512,0,0,1,0
0.7371868,0.2570742,0.0057390044,0,0,1,0
0.7363181,0.25928596,0.004395905,0,0,1,0
0.7506382,0.24459578,0.0047659525,0,0,1,0
0.75403607,0.24130777,0.0046562413,0,0,1,0
0.7646944,0.23043516,0.0048704515,0,0,1,0
0.73007566,0.26403326,0.005891131,0,0,1,0
0.7113899,0.28149933,0.0071107307,0,0,1,0
0.7149494,0.27744535,0.0076052095,0,0,1,0
0.720471,0.27249396,0.0070350077,0,0,1,0
0.717026,0.275598,0.007375962,0,0,1,0
0.69524723,0.2961991,0.008553628,0,0,1,0
0.7054328,0.287386,0.007181182,0,0,1,0
0.7026089,0.2887266,0.008664473,0,0,1,0
0.7299862,0.26304293,0.0069708466,0,0,1,0
0.71806216,0.27373242,0.008205526,0,0,1,0
0.7027289,0.28764454,0.009626523,0,0,1,0
0.69280934,0.29847285,0.00871784,0,0,1,0
0.7004628,0.28913572,0.010401451,0,0,1,0
0.6918578,0.30099744,0.0071446947,0,0,1,0
0.6885659,0.30029124,0.011142822,0,0,1,0
0.669163,0.31909803,0.011738901,0,0,1,0
0.6646553,0.32170454,0.013640144,0,0,1,0
0.6660609,0.31826842,0.015670579,0,0,1,0
0.66649216,0.32054254,0.01296526,0,0,1,0
0.6720246,0.31495705,0.013018389,0,0,1,0
0.67244023,0.31311336,0.014446384,0,0,1,0
0.67581147,0.31012538,0.014063188,0,0,1,0
0.6810433,0.30457166,0.014385096,0,0,1,0
0.686561,0.30074498,0.012694059,0,0,1,0
0.71281725,0.27484554,0.012337173,0,0,1,0
0.6870087,0.30059412,0.012397217,0,0,1,0
0.7070655,0.28049755,0.012436901,0,0,1,0
0.69386905,0.29516736,0.010963657,0,0,1,0
0.7210419,0.2692604,0.00969773,0,0,1,0
0.74741656,0.24264508,0.009938404,0,0,1,0
0.7315872,0.25545636,0.012956455,0,0,1,0
0.7397145,0.24828444,0.012001084,0,0,1,0
0.7451865,0.24289799,0.011915441,0,0,1,0
0.7182757,0.26930308,0.012421188,0,0,1,0
0.7274449,0.25954625,0.013008865,0,0,1,0
0.7436987,0.24621911,0.010082107,0,0,1,0
0.7201006,0.27146527,0.008434162,0,0,1,0
0.7418273,0.25071046,0.007462251,0,0,1,0
0.70533884,0.2882132,0.006447952,0,0,1,0
0.7374552,0.25636443,0.006180436,0,0,1,0
0.72436917,0.2690263,0.0066044945,0,0,1,0
0.7208121,0.27141646,0.007771429,0,0,1,0
0.70567036,0.28721172,0.007117892,0,0,1,0
0.7125101,0.2805571,0.006932831,0,0,1,0
0.70642847,0.28379986,0.009771619,0,0,1,0
0.7024374,0.29111633,0.006446235,0,0,1,0
0.7129578,0.2799809,0.007061342,0,0,1,0
0.71000016,0.2800936,0.009906224,0,0,1,0
0.7055961,0.28648508,0.0079189055,0,0,1,0
0.6989476,0.28922468,0.011827682,0,0,1,0
0.69462186,0.2934834,0.01189465,0,0,1,0
0.68770546,0.29956555,0.012729026,0,0,1,0
0.68204993,0.30520514,0.012744933,0,0,1,0
0.684035,0.3037853,0.012179755,0,0,1,0
0.6825145,0.3030244,0.014461159,0,0,1,0
0.6920992,0.2970488,0.010852022,0,0,1,0
0.69151235,0.29736945,0.011118204,0,0,1,0
0.7103461,0.27697733,0.012676603,0,0,1,0
0.71403825,0.27382913,0.01213259,0,0,1,0
0.70529956,0.28116283,0.013537593,0,0,1,0
0.68892545,0.29539493,0.015679661,0,0,1,0
0.7241419,0.26114312,0.014714975,0,0,1,0
0.69027454,0.29396963,0.015755849,0,0,1,0
0.67766064,0.31138915,0.010950168,0,0,1,0
0.6692107,0.31662697,0.014162339,0,0,1,0
0.65784514,0.32720694,0.014947974,0,0,1,0
0.66234255,0.32679275,0.010864674,0,0,1,0
0.63766795,0.35134578,0.0109862685,0,0,1,0
0.6512823,0.3354592,0.013258489,0,0,1,0
0.6592257,0.33127257,0.009501744,0,0,1,0
0.6530601,0.3382676,0.0086723035,0,0,1,0
0.66967803,0.32144433,0.008877598,0,0,1,0
0.6345067,0.35204604,0.013447281,0,0,1,0
0.6591995,0.33247134,0.008329252,0,0,1,0
0.6316181,0.3527447,0.015637198,0,0,1,0
0.62181836,0.36837092,0.009810829,0,0,1,0
0.6417044,0.3471939,0.011101728,0,0,1,0
0.61349094,0.370463,0.016046088,0,0,1,0
0.6293835,0.35839066,0.01222582,0,0,1,0
0.6095238,0.3743833,0.016092947,0,0,1,0
0.635729,0.34869495,0.015575941,0,0,1,0
0.6114525,0.37394488,0.014602488,0,0,1,0
0.6329772,0.35134146,0.015681352,0,0,1,0
0.60769665,0.37578702,0.016516265,0,0,1,0
0.63003266,0.35441402,0.015553268,0,0,1,0
0.63857657,0.3415606,0.0198629,0,0,1,0
0.6251755,0.35746393,0.017360661,0,0,1,0
0.632333,0.3492257,0.018441226,0,0,1,0
0.6115182,0.37474638,0.01373539,0,0,1,0
0.6191488,0.3616846,0.019166611,0,0,1,0
0.6280416,0.3559393,0.016019061,0,0,1,0
0.6001685,0.3787888,0.021042695,0,0,1,0
0.5847814,0.4008185,0.014400081,0,0,1,0
0.58585477,0.39898798,0.0151573215,0,0,1,0
0.62166405,0.36307013,0.015265852,0,0,1,0
0.61530346,0.36813465,0.016561916,0,0,1,0
0.57683605,0.40540692,0.01775704,0,0,1,0
0.6010253,0.38235506,0.016619656,0,0,1,0
0.6123149,0.37089372,0.016791368,0,0,1,0
0.63363147,0.34860262,0.017765936,0,0,1,0
0.6432081,0.33925754,0.017534386,0,0,1,0
0.64714867,0.33023185,0.022619491,0,0,1,0
0.65748924,0.32644805,0.01606272,0,0,1,0
0.6628421,0.32082957,0.016328294,0,0,1,0
0.658463,0.32282954,0.018707467,0,0,1,0
0.65480727,0.3297418,0.015450964,0,0,1,0
0.6582939,0.32563862,0.016067488,0,0,1,0
0.62430215,0.3562794,0.019418506,0,0,1,0
0.64169604,0.34029612,0.018007865,0,0,1,0
0.6343046,0.34646842,0.019227006,0,0,1,0
0.6509151,0.3238087,0.025276328,0,0,1,0
0.6286845,0.34745502,0.023860427,0,0,1,0
0.6491709,0.32396013,0.02686901,0,0,1,0
0.6286339,0.34354246,0.027823644,0,0,1,0
0.615858,0.35251865,0.03162337,0,0,1,0
0.60845286,0.35560775,0.035939395,0,0,1,0
0.64495844,0.3298439,0.025197677,0,0,1,0
0.65987384,0.3137872,0.02633894,0,0,1,0
0.6587147,0.32045236,0.020832976,0,0,1,0
0.6873631,0.2937851,0.018851772,0,0,1,0
0.67601806,0.30582207,0.018159883,0,0,1,0
0.68070686,0.30376723,0.0155259175,0,0,1,0
0.7223427,0.2644535,0.013203768,0,0,1,0
0.69966376,0.2854274,0.014908887,0,0,1,0
0.6815639,0.30589524,0.012540909,0,0,1,0
0.69968456,0.28696632,0.013349092,0,0,1,0
0.67053914,0.31337377,0.016087115,0,0,1,0
0.6914077,0.29324928,0.015343097,0,0,1,0
0.684826,0.3019368,0.013237123,0,0,1,0
0.6730351,0.3139915,0.012973412,0,0,1,0
0.65388805,0.3302526,0.015859375,0,0,1,0
0.64797455,0.33867478,0.013350616,0,0,1,0
0.6550268,0.33141533,0.013557864,0,0,1,0
0.634437,0.35062236,0.014940666,0,0,1,0
0.641635,0.34625897,0.012106131,0,0,1,0
0.6409648,0.34574637,0.013288782,0,0,1,0
0.628284,0.35572428,0.015991801,0,0,1,0
0.62679434,0.35875306,0.014452576,0,0,1,0
0.6184549,0.36951324,0.012031901,0,0,1,0
0.6132665,0.37462464,0.012108844,0,0,1,0
0.6069518,0.37986392,0.013184243,0,0,1,0
0.5840652,0.40094006,0.014994735,0,0,1,0
0.6072424,0.37950334,0.0132542765,0,0,1,0
0.59234494,0.3946258,0.0130292345,0,0,1,0
0.6145728,0.36921397,0.016213218,0,0,1,0
0.6162111,0.36901915,0.014769685,0,0,1,0
0.6361948,0.35088232,0.012922896,0,0,1,0
0.6319765,0.35458606,0.013437503,0,0,1,0
0.62326866,0.35676938,0.01996193,0,0,1,0
0.6233212,0.35532126,0.021357507,0,0,1,0
0.60084057,0.3809652,0.01819427,0,0,1,0
0.6298049,0.349493,0.020702148,0,0,1,0
0.64830416,0.33366087,0.018034996,0,0,1,0
0.6158686,0.36885422,0.015277196,0,0,1,0
0.63899565,0.34331995,0.01768443,0,0,1,0
0.6126206,0.3697777,0.017601684,0,0,1,0
0.6168165,0.36721173,0.015971733,0,0,1,0
0.62152964,0.36366776,0.014802561,0,0,1,0
0.6323708,0.3527092,0.014919924,0,0,1,0
0.6339557,0.35232267,0.013721647,0,0,1,0
0.6377481,0.34759998,0.014651855,0,0,1,0
0.6428425,0.33938017,0.017777413,0,0,1,0
0.6691269,0.31789574,0.012977303,0,0,1,0
0.66905516,0.31446818,0.016476741,0,0,1,0
0.6670798,0.3162647,0.016655507,0,0,1,0
0.674322,0.30992767,0.015750289,0,0,1,0
0.70901597,0.27593103,0.015052972,0,0,1,0
0.69496197,0.29346406,0.011573871,0,0,1,0
0.70103914,0.28706664,0.011894161,0,0,1,0
0.7106426,0.27810562,0.011251866,0,0,1,0
0.7048113,0.287118,0.0080707,0,0,1,0
0.7249045,0.26686627,0.008229172,0,0,1,0
0.710729,0.28184566,0.007425333,0,0,1,0
0.7118266,0.27916315,0.009010216,0,0,1,0
0.69632936,0.29315042,0.010520257,0,0,1,0
0.6841499,0.30193698,0.013913055,0,0,1,0
0.67172897,0.30865982,0.019611215,0,0,1,0
0.65154517,0.33047038,0.01798448,0,0,1,0
0.64132136,0.3396653,0.019013323,0,0,1,0
0.6684825,0.3158855,0.015632,0,0,1,0
0.63820505,0.3429459,0.018849079,0,0,1,0
0.6207271,0.36021224,0.019060684,0,0,1,0
0.6377151,0.34614956,0.01613533,0,0,1,0
0.67443764,0.31158704,0.013975311,0,0,1,0
0.69345427,0.2933397,0.013206075,0,0,1,0
0.663814,0.32149777,0.014688217,0,0,1,0
0.6800071,0.30761755,0.012375348,0,0,1,0
0.6963865,0.29208672,0.011526716,0,0,1,0
0.71594477,0.27644798,0.0076072714,0,0,1,0
0.731358,0.262383,0.0062590255,0,0,1,0
0.7617077,0.23294522,0.005346959,0,0,1,0
0.72679317,0.26718876,0.0060181655,0,0,1,0
0.73056465,0.26328608,0.0061492873,0,0,1,0
0.74866503,0.24574389,0.0055910945,0,0,1,0
0.757531,0.23705435,0.0054146554,0,0,1,0
0.752043,0.2427668,0.005190232,0,0,1,0
0.7759686,0.2185242,0.005507169,0,0,1,0
0.76219827,0.23292427,0.0048774146,0,1,0,0
0.76743853,0.22661234,0.005949168,0,0,0,1
0.7753469,0.21897197,0.005681248,0,1,0,0
0.7537021,0.24053156,0.0057663154,0,1,0,0
0.772744,0.22115852,0.0060974956,0,1,0,0
0.77200663,0.22213736,0.005855952,0,0,0,1
0.7632589,0.22996344,0.006777755,0,0,0,1
0.77223116,0.22004542,0.007723394,0,0,1,0
0.737154,0.25396028,0.008885586,0,0,1,0
0.7599225,0.2333573,0.0067202295,0,0,1,0
0.75631136,0.23758933,0.0060992595,0,0,1,0
0.75205094,0.2403535,0.0075955098,0,0,1,0
0.7538172,0.23853318,0.007649706,0,0,1,0
0.753366,0.23854324,0.008090801,0,1,0,0
0.7460887,0.2461486,0.007762786,0,1,0,0
0.75324607,0.23878331,0.007970547,0,1,0,0
0.7537015,0.23893268,0.0073658153,0,1,0,0
0.7522538,0.24123128,0.006515061,0,1,0,0
0.7515526,0.24061522,0.007832216,0,1,0,0
0.741291,0.25274846,0.0059605315,0,1,0,0
0.7524454,0.24218716,0.0053674625,0,1,0,0
0.760927,0.23376693,0.0053060455,0,1,0,0
0.74366325,0.25069192,0.005644759,0,1,0,0
0.7244652,0.2691216,0.006413223,0,1,0,0
0.7367152,0.25570846,0.0075764116,0,1,0,0
0.7350086,0.25780344,0.0071879807,0,1,0,0
0.73248047,0.26028752,0.0072319875,0,1,0,0
0.73223937,0.26024348,0.0075171357,0,1,0,0
0.70899767,0.28225145,0.008750829,0,1,0,0
0.71497107,0.27498814,0.010040832,0,1,0,0
0.7291767,0.2641384,0.0066848528,0,1,0,0
0.72705716,0.26699466,0.0059482516,0,1,0,0
0.72932994,0.2650008,0.0056692953,0,1,0,0
0.7345109,0.2590078,0.006481346,0,0,0,1
0.7317853,0.2604569,0.0077577867,0,0,0,1
0.6922197,0.2991925,0.008587821,0,1,0,0
0.6925911,0.29720414,0.010204725,0,1,0,0
0.6959543,0.29527342,0.008772292,0,1,0,0
0.6898307,0.29999524,0.010174038,0,1,0,0
0.67077714,0.31769645,0.011526387,0,1,0,0
0.6914697,0.29879075,0.009739528,0,1,0,0
0.6685493,0.31801262,0.013438183,0,1,0,0
0.6657954,0.32258353,0.011621082,0,0,0,1
0.65521854,0.33255804,0.012223432,0,0,1,0
0.657074,0.3289705,0.013955556,0,0,1,0
0.646446,0.3412753,0.012278736,0,0,1,0
0.65144885,0.33439332,0.014157809,0,0,0,1
0.6343574,0.34838396,0.017258678,0,0,1,0
0.67384195,0.31216177,0.013996298,0,0,1,0
0.65257704,0.33471105,0.012711978,0,0,1,0
0.6360556,0.34941947,0.014524931,0,0,1,0
0.65258116,0.3326744,0.014744385,0,0,1,0
0.6660424,0.31748524,0.01647237,0,0,1,0
0.6687219,0.31905594,0.012222195,0,0,1,0
0.68148535,0.30585042,0.012664238,0,0,1,0
0.69965476,0.29047734,0.009867974,0,0,1,0
0.69768655,0.29405212,0.00826131,0,0,1,0
0.7152555,0.27858856,0.006155993,0,0,1,0
0.7339904,0.25796875,0.00804083,0,0,1,0
0.7467557,0.24773914,0.0055051125,0,0,1,0
0.72746986,0.26687774,0.005652351,0,0,1,0
0.6995013,0.29232812,0.0081706075,0,0,1,0
0.6757829,0.31202096,0.0121961925,0,0,1,0
0.6530795,0.33275384,0.01416661,0,0,1,0
0.6456614,0.339288,0.015050558,0,0,1,0
0.6319774,0.34628657,0.021736009,0,0,1,0
0.611412,0.36851054,0.020077484,0,0,1,0
0.6154133,0.364785,0.019801715,0,0,1,0
0.63479453,0.3428491,0.022356307,0,0,1,0
0.6313149,0.34342432,0.025260812,0,0,1,0
0.60267806,0.37338948,0.023932422,0,0,1,0
0.6260467,0.3507627,0.023190564,0,0,0,1
0.6516195,0.32885635,0.01952415,0,0,1,0
0.64174134,0.33674163,0.021516966,0,0,1,0
0.58995336,0.37931675,0.030729918,0,0,1,0
0.5575767,0.41394106,0.028482223,0,0,1,0
0.62958276,0.3519969,0.018420339,0,0,1,0
0.58062655,0.40685958,0.012513881,0,0,1,0
0.6251875,0.36193672,0.012875711,0,0,0,1
0.67015076,0.31668505,0.013164199,0,1,0,0
0.7044427,0.28348973,0.012067503,0,0,1,0
0.7083559,0.2818366,0.009807428,0,1,0,0
0.7162725,0.27319503,0.01053248,0,0,0,1
0.72236234,0.2678526,0.009784991,0,1,0,0
0.7137919,0.27884814,0.007359972,0,1,0,0
0.70915735,0.28464848,0.006194161,0,1,0,0
0.7583662,0.23537128,0.006262464,0,1,0,0
0.7637648,0.22945794,0.0067773657,0,1,0,0
0.74953485,0.24441725,0.006047946,0,1,0,0
0.7836915,0.20973358,0.00657491,0,1,0,0
0.75514984,0.23896816,0.0058819484,0,1,0,0
0.78316844,0.21080479,0.0060268366,0,1,0,0
0.7690717,0.22538465,0.005543656,0,1,0,0
0.76316714,0.23038037,0.006452507,0,1,0,0
0.76485157,0.22881861,0.006329773,0,1,0,0
0.77638,0.21778657,0.0058334824,0,1,0,0
0.7545524,0.23772788,0.007719762,0,1,0,0
0.77667534,0.2146436,0.008681064,0,1,0,0
0.7427959,0.24757046,0.009633719,0,1,0,0
0.752254,0.23855413,0.009191839,0,1,0,0
0.74788445,0.24245718,0.00965828,0,1,0,0
0.71938866,0.26967338,0.010937992,0,1,0,0
0.7270326,0.2612603,0.011707047,0,1,0,0
0.7304415,0.2576128,0.011945705,0,1,0,0
0.73783326,0.2515543,0.010612398,0,1,0,0
0.7184827,0.26759094,0.013926365,0,1,0,0
0.7186574,0.2704493,0.010893276,0,1,0,0
0.7077051,0.28220868,0.010086258,0,1,0,0
0.7485104,0.24100971,0.010479918,0,1,0,0
0.7552965,0.23463948,0.010064033,0,1,0,0
0.7434954,0.24825555,0.0082490025,0,1,0,0
0.7288732,0.2562877,0.014839153,0,1,0,0
0.6779794,0.30625746,0.015763173,0,1,0,0
0.6851191,0.3016838,0.013197095,0,1,0,0
0.67635554,0.30909118,0.014553221,0,1,0,0
0.65858585,0.3297087,0.011705456,0,1,0,0
0.62549704,0.36041975,0.0140832495,0,1,0,0
0.61998856,0.36809042,0.011920968,0,1,0,0
0.6368035,0.35191897,0.011277524,0,1,0,0
0.6269188,0.35897776,0.014103359,0,1,0,0
0.6181157,0.36741573,0.014468537,0,1,0,0
0.5856182,0.40102378,0.01335805,0,1,0,0
0.6344796,0.3514408,0.014079612,0,1,0,0
0.6691139,0.31508192,0.015804175,0,1,0,0
0.67558634,0.31298462,0.011428969,0,1,0,0
0.659048,0.32933575,0.011616182,0,1,0,0
0.6935609,0.2974382,0.009000923,0,1,0,0
0.6959117,0.29564622,0.008442065,0,1,0,0
0.7154891,0.27693337,0.0075775227,0,1,0,0
0.7122923,0.28053078,0.0071769333,0,1,0,0
0.73670363,0.25677857,0.0065177535,0,1,0,0
0.7332264,0.26001623,0.0067573944,0,1,0,0
0.7386202,0.25717804,0.0042017894,0,1,0,0
0.7467723,0.24707083,0.00615688,0,1,0,0
0.72301364,0.2688491,0.008137239,0,1,0,0
0.710791,0.28302646,0.006182536,0,1,0,0
0.6883271,0.30307275,0.00860029,0,1,0,0
0.6817383,0.30877778,0.009483883,0,1,0,0
0.6752253,0.31617594,0.008598788,0,1,0,0
0.6553673,0.3334568,0.011175828,0,1,0,0
0.7034736,0.28607044,0.010455867,0,1,0,0
0.7028097,0.28317764,0.014012718,0,1,0,0
0.68904406,0.29552317,0.015432746,0,1,0,0
0.705561,0.27710578,0.017333275,0,1,0,0
0.69620717,0.28615528,0.01763753,0,1,0,0
0.6713896,0.3116048,0.017005622,0,1,0,0
0.6944909,0.28972465,0.015784448,0,1,0,0
0.6993124,0.28505003,0.015637584,0,1,0,0
0.6913789,0.2971486,0.011472492,0,1,0,0
0.6873908,0.3017839,0.010825267,0,1,0,0
0.6760542,0.31260905,0.011336767,0,1,0,0
0.6664563,0.32139358,0.012150093,0,1,0,0
0.6906482,0.2994373,0.0099144615,0,1,0,0
0.684483,0.30509397,0.010423068,0,1,0,0
0.6883148,0.3019336,0.009751646,0,1,0,0
0.66196847,0.32747123,0.010560375,0,1,0,0
0.6250479,0.36028537,0.014666664,0,1,0,0
0.64280015,0.34524584,0.011953969,0,1,0,0
0.64371675,0.34142268,0.014860569,0,1,0,0
0.6670932,0.31616944,0.016737383,0,1,0,0
0.6777074,0.30337843,0.018914273,0,1,0,0
0.637617,0.33848393,0.023899114,0,1,0,0
0.61369866,0.36641917,0.019882143,0,1,0,0
0.6462238,0.33289185,0.020884378,0,1,0,0
0.6377609,0.33911464,0.02312445,0,1,0,0
0.6268894,0.34883374,0.024276882,0,1,0,0
0.6894719,0.29080784,0.019720241,0,1,0,0
0.6691814,0.31156322,0.01925538,0,1,0,0
0.6932563,0.28696176,0.019781906,0,1,0,0
0.679932,0.30277225,0.017295722,0,1,0,0
0.7001951,0.28306618,0.016738752,0,1,0,0
0.66582245,0.3169289,0.017248586,0,1,0,0
0.6674762,0.31395906,0.01856473,0,1,0,0
0.6722391,0.30850014,0.019260721,0,1,0,0
0.7271786,0.26028273,0.012538663,0,1,0,0
0.71011233,0.2776008,0.0122869,0,1,0,0
0.7116542,0.2772538,0.011092006,0,1,0,0
0.6998635,0.28957585,0.010560666,0,1,0,0
0.7061479,0.28352615,0.010325942,0,1,0,0
0.697611,0.29385376,0.008535341,0,1,0,0
0.73055136,0.26124662,0.008202025,0,1,0,0
0.6964707,0.29199302,0.01153627,0,1,0,0
0.7240157,0.26889172,0.007092597,0,1,0,0
0.6969347,0.29550102,0.0075642886,0,1,0,0
0.68359375,0.30909744,0.007308803,0,1,0,0
0.6989242,0.29450998,0.0065658786,0,1,0,0
0.73498976,0.26010844,0.0049017356,0,1,0,0
0.7059516,0.2886263,0.005422059,0,1,0,0
0.74442184,0.25117013,0.0044080555,0,1,0,0
0.74130875,0.25467107,0.0040202104,0,1,0,0
0.748572,0.24675475,0.0046732323,0,1,0,0
0.76523554,0.23023404,0.004530443,0,1,0,0
0.7671082,0.22891138,0.003980359,0,1,0,0
0.7799659,0.21425171,0.0057823313,0,1,0,0
0.75804925,0.23534836,0.006602321,0,1,0,0
0.7267998,0.26436225,0.008838006,0,1,0,0
0.7238354,0.26934204,0.0068225777,0,1,0,0
0.72274196,0.26978838,0.007469607,0,1,0,0
0.7021192,0.29028386,0.0075969147,0,1,0,0
0.71639925,0.27611274,0.007487957,0,1,0,0
0.70067114,0.28786638,0.01146245,0,1,0,0
0.69049674,0.29564053,0.013862798,0,1,0,0
0.7104484,0.28158832,0.007963251,0,1,0,0
0.7108613,0.28036526,0.008773425,0,1,0,0
0.70276266,0.28922063,0.008016687,0,1,0,0
0.6921305,0.30053547,0.007333971,0,1,0,0
0.7118072,0.28154966,0.0066430946,0,1,0,0
0.685576,0.30649528,0.007928633,0,1,0,0
0.6911227,0.302272,0.0066051995,0,1,0,0
0.6850799,0.30599695,0.008923114,0,1,0,0
0.69963074,0.29282758,0.0075416993,0,1,0,0
0.7289782,0.26494455,0.006077237,0,1,0,0
0.7060393,0.28617892,0.0077818013,0,1,0,0
0.7259755,0.26709923,0.006925252,0,1,0,0
0.7048409,0.28846508,0.00669405,0,1,0,0
0.7048229,0.28838888,0.0067882873,0,1,0,0
0.6711882,0.3206591,0.008152744,0,1,0,0
0.6832226,0.3082526,0.00852478,0,1,0,0
0.6827532,0.30898824,0.008258494,0,1,0,0
0.73308116,0.25810584,0.008812987,0,1,0,0
0.7322085,0.259955,0.007836508,0,1,0,0
0.68994755,0.30316094,0.0068915314,0,1,0,0
0.7147001,0.27784538,0.00745454,0,1,0,0
0.70741534,0.28437957,0.008205135,0,1,0,0
0.72328013,0.26966205,0.0070578787,0,1,0,0
0.7068015,0.28493956,0.008258989,0,1,0,0
0.70974547,0.28128514,0.008969405,0,1,0,0
0.6969665,0.29442412,0.008609392,0,1,0,0
0.6811806,0.30796567,0.010853774,0,1,0,0
0.6675898,0.32012168,0.012288566,0,1,0,0
0.6544011,0.33301806,0.012580752,0,1,0,0
0.6341729,0.3464606,0.019366493,0,1,0,0
0.65159416,0.33370382,0.014702082,0,1,0,0
0.6304279,0.3568436,0.012728464,0,1,0,0
0.6621433,0.32763714,0.0102196485,0,1,0,0
0.69744617,0.29302916,0.009524579,0,1,0,0
0.71415144,0.27942988,0.0064186305,0,1,0,0
0.7528457,0.24284634,0.004307964,0,1,0,0
0.77780515,0.21784307,0.0043518296,0,1,0,0
0.77455837,0.221094,0.0043476573,0,1,0,0
0.74299544,0.25151074,0.005493842,0,1,0,0
0.74713755,0.24686337,0.005999083,0,1,0,0
0.7429049,0.25213015,0.004964902,0,1,0,0
0.75333256,0.24217898,0.004488532,0,1,0,0
0.7420468,0.25295547,0.004997777,0,1,0,0
0.72995317,0.26327246,0.006774361,0,1,0,0
0.71547306,0.27688676,0.0076402323,0,1,0,0
0.71832156,0.27297464,0.008703814,0,1,0,0
0.71743304,0.27439705,0.00816995,0,1,0,0
0.6975483,0.29333183,0.009119887,0,1,0,0
0.6989069,0.29223627,0.008856822,0,1,0,0
0.69021904,0.3009508,0.008830182,0,1,0,0
0.67564774,0.31383032,0.010521927,0,1,0,0
0.69333977,0.2954992,0.011161064,0,1,0,0
0.6716766,0.31335962,0.014963758,0,1,0,0
0.667305,0.3201381,0.0125569925,0,1,0,0
0.64922625,0.33426312,0.016510686,0,1,0,0
0.65801173,0.31955,0.022438208,0,1,0,0
0.6189853,0.35478762,0.026227152,0,1,0,0
0.61801916,0.3567308,0.02525009,0,1,0,0
0.61261904,0.36224854,0.02513243,0,1,0,0
0.63861436,0.34253627,0.018849317,0,1,0,0
0.6582636,0.3272767,0.014459608,0,1,0,0
0.6887385,0.29842797,0.012833493,0,1,0,0
0.6772306,0.31051108,0.012258267,0,1,0,0
0.67386526,0.31494793,0.011186794,0,1,0,0
0.6539777,0.33528483,0.010737487,0,1,0,0
0.6616373,0.33037102,0.007991661,0,1,0,0
0.6381396,0.3481749,0.013685511,0,1,0,0
0.68036926,0.3104395,0.009191245,0,1,0,0
0.663422,0.32285523,0.013722773,0,1,0,0
0.66806895,0.32228193,0.009649135,0,1,0,0
0.66861874,0.32087782,0.010503386,0,1,0,0
0.66309357,0.32698023,0.009926153,0,1,0,0
0.6651684,0.32510278,0.009728813,0,1,0,0
0.6619259,0.32622096,0.011853193,0,1,0,0
0.66233444,0.32644185,0.011223726,0,1,0,0
0.6404416,0.34704575,0.012512595,0,1,0,0
0.61401385,0.37258077,0.0134054255,0,1,0,0
0.63210285,0.3548235,0.013073676,0,1,0,0
0.6391253,0.34959632,0.0112784235,0,1,0,0
0.65625334,0.33135766,0.0123890275,0,1,0,0
0.6617304,0.32401115,0.014258542,0,1,0,0
0.69554764,0.2895943,0.014857981,0,1,0,0
0.73046046,0.2553883,0.014151248,0,1,0,0
0.7022893,0.2821778,0.01553298,0,1,0,0
0.71660465,0.27270803,0.01068731,0,1,0,0
0.7330622,0.25752428,0.009413584,0,1,0,0
0.73663604,0.2562041,0.0071597877,0,1,0,0
0.7420546,0.2503093,0.0076361485,0,1,0,0
0.7266827,0.26660162,0.006715584,0,1,0,0
0.7471437,0.2451664,0.007689882,0,1,0,0
0.7306242,0.26300615,0.006369612,0,1,0,0
0.73307323,0.2604619,0.006464864,0,1,0,0
0.7555697,0.2380748,0.006355572,0,1,0,0
0.7366695,0.25576714,0.007563362,0,1,0,0
0.748156,0.24590397,0.0059400834,0,1,0,0
0.7700621,0.22272128,0.0072166435,0,1,0,0
0.7687767,0.22525087,0.005972417,0,1,0,0
0.7715035,0.22215985,0.0063366834,0,1,0,0
0.76656735,0.22661167,0.006820973,0,1,0,0
0.7752087,0.21813984,0.0066514337,0,1,0,0
0.7772687,0.21688364,0.005847592,0,1,0,0
0.79042053,0.203312,0.0062674806,0,1,0,0
0.78113616,0.21144861,0.0074152425,0,1,0,0
0.75870997,0.23298685,0.00830317,0,1,0,0
0.7553926,0.23652023,0.008087063,0,1,0,0
0.7311137,0.25962156,0.009264787,0,1,0,0
0.74231285,0.24851006,0.009177076,0,1,0,0
0.752607,0.23980485,0.00758819,0,1,0,0
0.73723835,0.25604016,0.006721625,0,1,0,0
0.7161192,0.27583718,0.008043536,0,1,0,0
0.6993776,0.29254755,0.008074837,0,1,0,0
0.6958899,0.2954172,0.008692968,0,1,0,0
0.66665083,0.32346985,0.009879327,0,1,0,0
0.693368,0.2987536,0.007878419,0,1,0,0
0.67096055,0.31919625,0.009843161,0,1,0,0
0.6838246,0.30572733,0.010448137,0,1,0,0
0.7195886,0.2685829,0.011828535,0,1,0,0
0.6823073,0.3081249,0.009567785,0,1,0,0
0.7153402,0.27300182,0.011657978,0,1,0,0
0.70162624,0.2879501,0.010423697,0,1,0,0
0.6976959,0.2917379,0.010566155,0,1,0,0
0.67310363,0.3142462,0.012650149,0,1,0,0
0.68103266,0.30815765,0.010809734,0,1,0,0
0.6887607,0.29916772,0.012071594,0,1,0,0
0.67298496,0.314808,0.012207055,0,1,0,0
0.68614894,0.30225095,0.011600167,0,1,0,0
0.6826278,0.3064836,0.010888603,0,1,0,0
0.6846132,0.30362317,0.011763592,0,1,0,0
0.6689605,0.31763798,0.0134015335,0,1,0,0
0.6715178,0.31613216,0.0123501,0,1,0,0
0.69129014,0.29473796,0.013971871,0,1,0,0
0.7112451,0.2744556,0.014299282,0,1,0,0
0.71025664,0.2743671,0.015376272,0,1,0,0
0.7253427,0.26290667,0.011750624,0,1,0,0
0.7321123,0.25659835,0.011289315,0,1,0,0
0.7073637,0.28206444,0.010571862,0,1,0,0
0.7293322,0.25835565,0.012312148,0,1,0,0
0.7110155,0.27889583,0.010088591,0,1,0,0
0.6993924,0.28854758,0.012060054,0,1,0,0
0.6729276,0.31598395,0.011088449,0,1,0,0
0.6429107,0.344004,0.013085246,0,1,0,0
0.60905397,0.37892082,0.012025194,0,1,0,0
0.59283394,0.39581963,0.01134645,0,1,0,0
0.6247943,0.36573654,0.009469071,0,1,0,0
0.62636137,0.36394238,0.009696233,0,1,0,0
0.62327045,0.36791918,0.008810359,0,1,0,0
0.6433111,0.34557512,0.011113758,0,1,0,0
0.6273943,0.36221546,0.010390263,0,1,0,0
0.6311811,0.35601935,0.012799523,0,1,0,0
0.7143835,0.2744398,0.011176718,0,1,0,0
0.6949418,0.2937425,0.011315692,0,1,0,0
0.6912046,0.29887125,0.0099240625,0,1,0,0
0.73193526,0.25749066,0.010574204,0,1,0,0
0.7432585,0.24807377,0.008667718,0,1,0,0
0.71202046,0.2777856,0.010193932,0,1,0,0
0.7139653,0.2781229,0.007911762,0,1,0,0
0.7026242,0.28683892,0.010536799,0,1,0,0
0.70698434,0.28248754,0.01052814,0,1,0,0
0.70274526,0.28911728,0.008137524,0,1,0,0
0.71981484,0.27261552,0.0075696246,0,1,0,0
0.724656,0.26712817,0.008215849,0,1,0,0
0.71436065,0.27595857,0.00968075,0,1,0,0
0.7226109,0.27038118,0.0070078736,0,1,0,0
0.71093005,0.28023902,0.008830917,0,1,0,0
0.7194798,0.27284786,0.007672376,0,1,0,0
0.6984221,0.2947584,0.006819523,0,1,0,0
0.709473,0.28444415,0.006082848,0,1,0,0
0.7124325,0.28093883,0.006628693,0,1,0,0
0.7274365,0.26421687,0.0083466405,0,1,0,0
0.69232696,0.29557157,0.012101482,0,1,0,0
0.6902935,0.29701194,0.012694636,0,1,0,0
0.64756227,0.34014615,0.012291713,0,1,0,0
0.67604685,0.31415394,0.009799112,0,1,0,0
0.66265017,0.32579023,0.011559601,0,1,0,0
0.6835067,0.30592734,0.010565894,0,1,0,0
0.6657655,0.32319114,0.011043312,0,1,0,0
0.6691919,0.3183461,0.012461959,0,1,0,0
0.64985275,0.33868256,0.011464632,0,1,0,0
0.6296953,0.35660934,0.01369537,0,1,0,0
0.64112747,0.34501973,0.013852765,0,1,0,0
0.6578089,0.3257843,0.016406802,0,1,0,0
0.6441685,0.3397738,0.016057717,0,1,0,0
0.65794116,0.32488093,0.017177945,0,1,0,0
0.67224467,0.3097301,0.018025275,0,1,0,0
0.67030364,0.31340322,0.016293155,0,1,0,0
0.65320575,0.33095434,0.015839927,0,1,0,0
0.6453897,0.3374366,0.017173706,0,1,0,0
0.64609617,0.3329955,0.020908326,0,0,0,1
0.640984,0.33704925,0.021966748,0,1,0,0
0.6174194,0.3605246,0.022055987,0,1,0,0
0.61527693,0.35961595,0.0251072,0,1,0,0
0.6077157,0.36544067,0.026843704,0,1,0,0
0.5994836,0.37872002,0.021796389,0,1,0,0
0.6092045,0.3657777,0.025017817,0,1,0,0
0.62729424,0.34394413,0.02876164,0,1,0,0
0.62756944,0.34169796,0.030732624,0,1,0,0
0.6531108,0.31874722,0.028142016,0,1,0,0
0.6469982,0.32115513,0.031846687,0,1,0,0
0.6443025,0.3333181,0.022379449,0,1,0,0
0.63647884,0.34439093,0.019130144,0,0,1,0
0.65147513,0.32810163,0.0204233,0,0,1,0
0.67571396,0.31435463,0.0099313995,0,0,1,0
0.69353485,0.29313192,0.0133332135,0,0,1,0
0.6969281,0.28950438,0.013567631,0,0,1,0
0.71012914,0.28384063,0.006030214,0,0,1,0
0.7360639,0.25576952,0.008166575,0,0,1,0
0.74102974,0.25137478,0.0075954744,0,0,1,0
0.73899496,0.25439903,0.0066060754,0,0,1,0
0.735829,0.25858572,0.0055853548,0,0,1,0
0.74916285,0.24416478,0.0066723647,0,0,1,0
0.7577768,0.23527792,0.0069453204,0,0,1,0
0.74640965,0.24633989,0.0072504566,0,0,1,0
0.75378746,0.23743056,0.008782049,0,0,1,0
0.73992366,0.25309202,0.006984336,0,0,1,0
0.7570999,0.23406187,0.00883827,0,0,1,0
0.73331434,0.2592026,0.0074830377,0,0,1,0
0.7484766,0.2434811,0.0080422675,0,0,1,0
0.74084073,0.25285438,0.006304825,0,0,1,0
0.7557958,0.23910369,0.0051004975,0,0,1,0
0.7686542,0.22616778,0.0051779905,0,0,1,0
0.77569324,0.22005229,0.004254463,0,0,1,0
0.7666276,0.22766091,0.005711437,0,0,1,0
0.7815439,0.21390717,0.004548921,0,0,1,0
0.7467716,0.24756287,0.0056656394,0,0,1,0
0.75007796,0.24449776,0.005424276,0,0,1,0
0.72485685,0.26784164,0.007301502,0,0,1,0
0.7200388,0.27053556,0.009425642,0,0,1,0
0.7211812,0.2701985,0.008620365,0,0,1,0
0.7363293,0.25602132,0.007649442,0,0,1,0
0.7363449,0.25530913,0.008345981,0,0,1,0
0.6956096,0.29558355,0.008806891,0,0,1,0
0.71342254,0.27711514,0.009462311,0,0,1,0
0.71071887,0.27938572,0.009895408,0,0,1,0
0.69773716,0.29178765,0.010475114,0,0,1,0
0.6941526,0.29589525,0.009952085,0,0,1,0
0.69796896,0.29224867,0.009782416,0,0,1,0
0.65939987,0.33122274,0.009377468,0,0,1,0
0.68491864,0.3047686,0.01031277,0,0,1,0
0.69351846,0.2989102,0.0075712344,0,0,1,0
0.6949349,0.2955845,0.0094805965,0,0,1,0
0.7250811,0.26592013,0.00899884,0,0,1,0
0.73957026,0.2523668,0.008062885,0,0,1,0
0.7342298,0.25763404,0.008136198,0,0,1,0
0.7072565,0.28432453,0.008418991,0,0,1,0
0.7349141,0.2557083,0.00937765,0,0,1,0
0.70453507,0.2858226,0.009642281,0,0,1,0
0.68463945,0.3058374,0.009523097,0,0,1,0
0.7096745,0.28183913,0.0084863715,0,0,1,0
0.71713775,0.27426094,0.008601287,0,0,1,0
0.7069109,0.284699,0.008390036,0,0,1,0
0.72671723,0.2657382,0.007544681,0,0,1,0
0.7012456,0.28977308,0.008981286,0,0,1,0
0.7069787,0.28442773,0.008593646,0,0,1,0
0.71312684,0.2767329,0.01014025,0,0,1,0
0.69154185,0.2968583,0.011599799,0,0,1,0
0.6824624,0.3068517,0.010685901,0,0,1,0
0.6580076,0.3299928,0.011999642,0,0,1,0
0.66933185,0.31684807,0.013820125,0,0,1,0
0.6627552,0.32159722,0.015647538,0,0,1,0
0.66038084,0.32849383,0.011125318,0,0,1,0
0.62824667,0.35805693,0.013696405,0,0,1,0
0.62789375,0.35562485,0.016481377,0,0,1,0
0.5989748,0.3808207,0.02020451,0,0,1,0
0.58242154,0.3930609,0.024517529,0,0,1,0
0.63378596,0.34403855,0.02217545,0,0,1,0
0.6073373,0.36798617,0.024676634,0,0,1,0
0.619055,0.35844642,0.022498617,0,0,1,0
0.6188911,0.36049917,0.020609705,0,0,1,0
0.6606721,0.32303455,0.016293332,0,0,1,0
0.64391494,0.33971885,0.01636621,0,0,1,0
0.65054464,0.33206698,0.017388329,0,0,1,0
0.665274,0.3212601,0.013465854,0,0,1,0
0.6506321,0.3363872,0.0129807275,0,0,1,0
0.7021326,0.28833306,0.0095343245,0,0,1,0
0.7002401,0.28687623,0.01288375,0,0,1,0
0.71273535,0.2772081,0.010056524,0,0,1,0
0.7237348,0.26685172,0.0094134975,0,0,1,0
0.73879,0.25350407,0.007705959,0,0,1,0
0.73839897,0.25208938,0.009511678,0,0,1,0
0.7509319,0.24244508,0.0066229827,0,0,1,0
0.7514111,0.2429724,0.005616586,0,0,1,0
0.76734936,0.22763711,0.005013531,0,0,1,0
0.7450802,0.24858835,0.0063314927,0,0,1,0
0.73654264,0.25427973,0.009177661,0,0,1,0
0.7501561,0.24308854,0.0067553367,0,0,1,0
0.7657758,0.22712284,0.0071014725,0,0,1,0
0.7257347,0.26119784,0.013067461,0,0,1,0
0.72897214,0.25947258,0.011555291,0,0,1,0
0.7330982,0.25585097,0.011050804,0,0,1,0
0.7205137,0.2657754,0.013710898,0,0,1,0
0.69637436,0.2921258,0.011499813,0,0,1,0
0.68206924,0.30338037,0.014550396,0,0,1,0
0.6564847,0.3307319,0.012783294,0,0,1,0
0.68571514,0.29805225,0.016232578,0,0,1,0
0.68478286,0.30019554,0.015021574,0,0,1,0
0.64892304,0.33490017,0.016176773,0,0,1,0
0.6698843,0.31849155,0.0116241425,0,0,1,0
0.6460812,0.34068394,0.01323483,0,0,1,0
0.65659124,0.33186302,0.011545761,0,0,1,0
0.67740774,0.31098536,0.011606993,0,0,1,0
0.6524815,0.33526495,0.01225354,0,0,1,0
0.65452445,0.32850617,0.016969318,0,0,1,0
0.67156845,0.31706658,0.011364888,0,0,1,0
0.6947474,0.29448503,0.010767551,0,0,1,0
0.6807814,0.30796525,0.011253346,0,0,1,0
0.73488706,0.25757182,0.007541055,0,0,1,0
0.7214751,0.2696067,0.008918128,0,0,1,0
0.7250238,0.2650503,0.009925956,0,0,1,0
0.6927589,0.2984843,0.008756804,0,0,1,0
0.7325912,0.2591227,0.008286124,0,0,1,0
0.6951015,0.2953207,0.009577829,0,0,1,0
0.6999642,0.28774327,0.012292524,0,0,1,0
0.6960317,0.29582968,0.008138583,0,0,1,0
0.7016397,0.29077417,0.007586154,0,0,1,0
0.7151192,0.27573106,0.009149732,0,0,1,0
0.6890015,0.3005433,0.010455213,0,0,1,0
0.6956203,0.29614744,0.008232282,0,0,1,0
0.67531365,0.31285408,0.011832302,0,0,1,0
0.6698323,0.3204808,0.009686873,0,0,1,0
0.67797935,0.31368238,0.008338298,0,0,1,0
0.69618386,0.29573944,0.008076702,0,0,1,0
0.69466734,0.2969911,0.008341575,0,0,1,0
0.6967724,0.29438984,0.008837793,0,0,1,0
0.6773552,0.31280988,0.009834958,0,0,1,0
0.66522247,0.3238007,0.01097682,0,0,1,0
0.6667614,0.32407993,0.009158679,0,0,1,0
0.6716718,0.31755883,0.010769345,0,0,1,0
0.6495934,0.33771232,0.012694198,0,0,1,0
0.67599386,0.31245795,0.0115482,0,0,1,0
0.66972136,0.31859708,0.011681529,0,0,1,0
0.65433717,0.33295622,0.012706601,0,0,1,0
0.6529398,0.33151346,0.015546741,0,0,1,0
0.69123966,0.29767898,0.011081367,0,0,1,0
0.69564587,0.29347196,0.010882131,0,0,1,0
0.6871682,0.2993768,0.0134550715,0,0,1,0
0.70792633,0.2820894,0.009984236,0,0,1,0
0.694039,0.29605728,0.00990365,0,0,1,0
0.71050406,0.2802462,0.009249776,0,0,1,0
0.7348728,0.2592169,0.005910272,0,0,1,0
0.7177735,0.27459335,0.0076332227,0,0,1,0
0.7214157,0.27234125,0.0062430645,0,0,1,0
0.7113543,0.28372005,0.0049256077,0,0,1,0
0.68610257,0.30639622,0.0075011826,0,0,1,0
0.70475674,0.28435647,0.010886792,0,0,1,0
0.696014,0.29230088,0.0116851665,0,0,1,0
0.71495545,0.2743487,0.010695824,0,0,1,0
0.74336034,0.25081882,0.0058209267,0,0,1,0
0.70304084,0.2869429,0.0100162765,0,0,1,0
0.71923465,0.27231514,0.008450129,0,0,1,0
0.72153884,0.26791096,0.010550162,0,0,1,0
0.7029106,0.28149423,0.015595132,0,0,1,0
0.69935894,0.28705183,0.013589194,0,0,1,0
0.70517385,0.2828798,0.011946354,0,0,1,0
0.683216,0.3048393,0.011944646,0,0,1,0
0.6955612,0.2912736,0.013165248,0,0,1,0
0.68933064,0.29219833,0.018471073,0,0,1,0
0.65989256,0.3187404,0.02136707,0,0,1,0
0.6421529,0.33287683,0.024970215,0,0,1,0
0.65707296,0.32120135,0.021725737,0,0,1,0
0.63383335,0.33773717,0.028429475,0,0,1,0
0.61382645,0.35675982,0.029413737,0,0,1,0
0.6304401,0.34582257,0.023737254,0,0,1,0
0.60231686,0.37123504,0.026448054,0,0,1,0
0.63781774,0.34467646,0.017505813,0,0,1,0
0.6135901,0.36637318,0.020036662,0,0,1,0
0.58358043,0.39191464,0.024504997,0,0,1,0
0.6299728,0.34647533,0.023551838,0,0,1,0
0.6563234,0.3277869,0.01588976,0,0,1,0
0.6230815,0.35825244,0.01866608,0,0,1,0
0.6489586,0.33411774,0.0169236,0,0,1,0
0.69120216,0.29477403,0.014023753,0,0,1,0
0.6688649,0.32106188,0.010073231,0,0,1,0
0.68125165,0.30783534,0.010912948,0,0,1,0
0.6898303,0.30098096,0.009188798,0,0,1,0
0.70311886,0.2904727,0.0064084996,0,0,1,0
0.70421916,0.28677416,0.009006726,0,0,1,0
0.6988797,0.29508108,0.00603919,0,0,1,0
0.7047542,0.28912577,0.006120015,0,0,1,0
0.708657,0.28656083,0.004782071,0,0,1,0
0.67781097,0.31586635,0.006322736,0,0,1,0
0.7007754,0.29305544,0.006169173,0,0,1,0
0.69485444,0.297773,0.007372545,0,0,1,0
0.7024672,0.28986678,0.0076660477,0,0,1,0
0.6847635,0.3060814,0.009155046,0,0,1,0
0.64906865,0.3383312,0.012600127,0,0,1,0
0.64770013,0.33879185,0.013508096,0,0,1,0
0.63432217,0.34828532,0.017392555,0,0,1,0
0.66412485,0.31983316,0.016042018,0,0,1,0
0.66226834,0.3214786,0.016253091,0,0,1,0
0.67658216,0.3068153,0.016602593,0,0,1,0
0.6664093,0.3172318,0.016358793,0,0,1,0
0.690416,0.29649377,0.013090317,0,1,0,0
0.71475977,0.2745955,0.010644736,0,0,1,0
0.6937218,0.29491374,0.0113644395,0,0,1,0
0.6937828,0.2974648,0.008752376,0,0,1,0
0.68914187,0.30096963,0.009888532,0,0,0,1
0.70463264,0.2863199,0.009047437,0,1,0,0
0.7195362,0.27039605,0.010067842,0,0,0,1
0.71687514,0.27431124,0.008813675,0,1,0,0
0.70374435,0.2868177,0.009437944,0,1,0,0
0.67530835,0.3137233,0.0109683415,0,1,0,0
0.691466,0.2957295,0.012804588,0,0,1,0
0.6242337,0.36154392,0.014222398,0,0,1,0
0.65826625,0.3289654,0.012768352,0,0,1,0
0.69248533,0.2917617,0.015752979,0,0,1,0
0.6512955,0.32794967,0.020754931,0,0,1,0
0.6018361,0.3722851,0.025878798,0,0,0,1
0.6481379,0.33191636,0.01994568,0,0,0,1
0.6244048,0.35464233,0.020952892,0,0,0,1
0.63353276,0.34683707,0.019630177,0,0,0,1
0.6413194,0.3383804,0.020300254,0,0,1,0
0.60991085,0.37289447,0.017194673,0,0,1,0
0.6220927,0.3602194,0.017687902,0,0,1,0
0.5915996,0.39163625,0.016764212,0,0,1,0
0.6342421,0.34952313,0.016234724,0,0,1,0
0.6089833,0.3753035,0.015713204,0,0,1,0
0.6263325,0.35986233,0.013805214,0,0,1,0
0.59897166,0.3856524,0.015376025,0,1,0,0
0.6115526,0.37244534,0.016002009,0,1,0,0
0.59177417,0.39171538,0.016510418,0,1,0,0
0.58962345,0.39365816,0.016718332,0,1,0,0
0.57996196,0.39877832,0.021259705,0,1,0,0
0.5606062,0.41570166,0.0236921,0,1,0,0
0.5462875,0.42765674,0.026055777,0,1,0,0
0.5405825,0.42799172,0.031425804,0,1,0,0
0.5638384,0.4106003,0.025561305,0,1,0,0
0.5584649,0.4175937,0.023941506,0,1,0,0
0.57495755,0.4037867,0.021255694,0,1,0,0
0.5708526,0.4036154,0.025532067,0,1,0,0
0.5529367,0.4220002,0.025063142,0,1,0,0
0.5911508,0.3901966,0.018652583,0,1,0,0
0.56876695,0.41011533,0.02111778,0,1,0,0
0.5687394,0.4093959,0.021864647,0,1,0,0
0.633867,0.35233554,0.013797468,0,1,0,0
0.6124128,0.3724778,0.015109382,0,1,0,0
0.6285204,0.35870913,0.012770343,0,1,0,0
0.587365,0.39793757,0.014697497,0,1,0,0
0.59442604,0.39378148,0.0117924595,0,1,0,0
0.5880871,0.39805123,0.013861616,0,1,0,0
0.56984407,0.41636613,0.013789885,0,1,0,0
0.5834615,0.40356758,0.012970904,0,1,0,0
0.5635104,0.4229928,0.013496834,0,1,0,0
0.569766,0.41436362,0.015870467,0,1,0,0
0.59550995,0.38896847,0.015521617,0,1,0,0
0.58322185,0.40119654,0.0155815305,0,1,0,0
0.5770226,0.41019255,0.012784861,0,1,0,0
0.57847524,0.39657545,0.02494926,0,1,0,0
0.58713555,0.38418856,0.02867588,0,1,0,0
0.57862085,0.3966576,0.024721535,0,1,0,0
0.6148561,0.35915044,0.025993463,0,1,0,0
0.60606056,0.37057635,0.023363099,0,0,1,0
0.6417951,0.34018913,0.018015675,0,0,1,0
0.66344833,0.31939143,0.017160235,0,0,1,0
0.6774942,0.306259,0.016246777,0,0,1,0
0.6831949,0.30244637,0.014358786,0,0,1,0
0.67987907,0.3073327,0.012788262,0,0,1,0
0.73167026,0.25673428,0.011595433,0,0,1,0
0.7259382,0.2635329,0.010528929,0,0,1,0
0.7087253,0.2832955,0.00797913,0,0,1,0
0.72235405,0.26867545,0.008970529,0,0,1,0
0.7307111,0.26283976,0.0064492035,0,0,1,0
0.7474714,0.24664874,0.005879881,0,0,1,0
0.7335798,0.2607556,0.0056645796,0,0,1,0
0.7485573,0.24646333,0.0049794,0,0,1,0
0.7607114,0.23492715,0.0043614707,0,0,1,0
0.7632713,0.23161024,0.005118497,0,0,0,1
0.7845474,0.21018483,0.0052678245,0,0,1,0
0.7642185,0.22982821,0.0059533576,0,0,1,0
0.7843717,0.21091676,0.0047116163,0,0,1,0
0.7478202,0.24520755,0.0069722524,0,0,1,0
0.75712115,0.23815455,0.0047242492,0,0,1,0
0.7523306,0.24232271,0.0053466135,0,0,1,0
0.75600845,0.2374468,0.0065447227,0,0,1,0
0.7595501,0.23276551,0.0076843705,0,0,1,0
0.7550527,0.23734951,0.0075978246,0,0,1,0
0.7446307,0.24646255,0.00890676,0,0,1,0
0.7309131,0.2623773,0.006709615,0,0,1,0
0.75789964,0.23558782,0.006512601,0,0,1,0
0.76735306,0.22567394,0.0069729,0,0,1,0
0.78659976,0.2054028,0.007997496,0,0,1,0
0.7554226,0.2343033,0.010274187,0,0,1,0
0.76160413,0.2268838,0.011512025,0,0,1,0
0.7474243,0.24351376,0.009062,0,0,1,0
0.77776575,0.21465653,0.007577726,0,0,1,0
0.7456963,0.24394554,0.010358103,0,0,1,0
0.7282618,0.26121306,0.010525064,0,0,1,0
0.70536655,0.2859683,0.0086650755,0,0,1,0
0.68306816,0.30628303,0.010648748,0,0,1,0
0.69272554,0.29830655,0.008967873,0,0,1,0
0.6916133,0.29832485,0.010061796,0,0,1,0
0.6734974,0.3157618,0.010740817,0,0,1,0
0.66246444,0.32654777,0.010987865,0,0,1,0
0.64592576,0.34336656,0.010707675,0,0,1,0
0.66337335,0.32618135,0.010445288,0,0,1,0
0.6494118,0.3392714,0.011316824,0,0,1,0
0.6453632,0.342708,0.011928827,0,0,1,0
0.63978714,0.3474739,0.012738965,0,0,1,0
0.62574214,0.35971346,0.014544397,0,0,1,0
0.6558042,0.3283049,0.015890947,0,0,1,0
0.6405352,0.34499788,0.014466944,0,0,1,0
0.64417785,0.34527862,0.010543615,0,0,1,0
0.6773335,0.31213418,0.010532317,0,0,1,0
0.69930804,0.29193127,0.008760724,0,0,1,0
0.69963646,0.29206422,0.008299332,0,0,1,0
0.74131614,0.2512976,0.007386256,0,0,1,0
0.7375029,0.25413248,0.008364633,0,0,1,0
0.7001638,0.29431272,0.0055234646,0,0,1,0
0.70061666,0.29227358,0.0071097575,0,0,1,0
0.69412357,0.29883382,0.0070427046,0,0,1,0
0.6863657,0.30059248,0.01304182,0,0,1,0
0.6821987,0.3096234,0.008177905,0,0,1,0
0.706683,0.2832855,0.010031521,0,0,1,0
0.68802434,0.30035976,0.011615959,0,0,1,0
0.67481065,0.31478482,0.010404566,0,0,1,0
0.6792971,0.30597144,0.014731429,0,0,1,0
0.67754245,0.305692,0.016765613,0,0,1,0
0.65430063,0.3301916,0.015507671,0,0,1,0
0.66462225,0.31918675,0.01619101,0,0,1,0
0.62930304,0.34851515,0.022181844,0,0,1,0
0.63363785,0.33924466,0.027117468,0,0,1,0
0.6358321,0.34934542,0.014822474,0,0,1,0
0.6390815,0.34538442,0.015534064,0,0,1,0
0.6286967,0.35685438,0.01444893,0,0,1,0
0.61848915,0.36287788,0.01863297,0,0,1,0
0.63258576,0.34869233,0.01872187,0,0,1,0
0.6286253,0.35416183,0.017212845,0,0,1,0
0.63756514,0.3453434,0.017091457,0,0,1,0
0.62637347,0.35744256,0.016184017,0,0,1,0
0.6401462,0.3445531,0.015300736,0,0,1,0
0.64319146,0.3391358,0.017672725,0,0,1,0
0.6366909,0.34722605,0.016083052,0,0,1,0
0.6683296,0.31942135,0.012248994,0,0,1,0
0.6553899,0.33302462,0.011585558,0,0,1,0
0.67736655,0.3106196,0.012013818,0,0,1,0
0.6580443,0.33008188,0.011873716,0,0,1,0
0.6655467,0.3218,0.012653263,0,0,1,0
0.6840261,0.30571446,0.010259442,0,0,1,0
0.66386986,0.32323894,0.012891163,0,0,1,0
0.69321275,0.2974997,0.0092875855,0,0,1,0
0.69892615,0.2935723,0.0075015514,0,0,1,0
0.7076813,0.28638524,0.00593346,0,0,1,0
0.6840098,0.30395898,0.012031221,0,0,1,0
0.68773645,0.3039541,0.008309478,0,0,1,0
0.68298584,0.30692726,0.01008688,0,0,1,0
0.6720083,0.3150871,0.0129046375,0,0,1,0
0.67600566,0.3103392,0.013655106,0,0,1,0
0.648099,0.3325486,0.019352434,0,0,1,0
0.6584372,0.32524467,0.016318213,0,0,1,0
0.6382201,0.3446772,0.017102715,0,0,1,0
0.63250905,0.3478654,0.019625535,0,0,1,0
0.6904523,0.2959977,0.013549983,0,0,1,0
0.6800053,0.30852017,0.0114745535,0,0,1,0
0.6831701,0.30495676,0.011873148,0,0,1,0
0.6756323,0.31253925,0.011828446,0,0,1,0
0.66837037,0.31789684,0.0137328105,0,0,1,0
0.69403255,0.29403678,0.011930744,0,0,1,0
0.68510765,0.305961,0.008931339,0,0,1,0
0.7164478,0.27405733,0.009494998,0,0,1,0
0.7100601,0.2781974,0.011742384,0,0,1,0
0.69368553,0.2974635,0.008850999,0,0,1,0
0.7065362,0.28581026,0.007653558,0,0,1,0
0.7234749,0.2682424,0.0082826065,0,0,1,0
0.7235556,0.2670598,0.009384576,0,0,1,0
0.72883135,0.2632684,0.007900283,0,0,1,0
0.74288386,0.24894685,0.008169283,0,0,1,0
0.7395214,0.25159425,0.008884383,0,0,1,0
0.7407095,0.25083673,0.0084538,0,0,1,0
0.721764,0.26874435,0.009491626,0,0,1,0
0.7452792,0.24717718,0.007543592,0,0,1,0
0.7195565,0.2712739,0.009169599,0,0,1,0
0.7257341,0.2654277,0.008838228,0,0,1,0
0.72728914,0.26535589,0.0073549626,0,0,1,0
0.7078425,0.28328225,0.008875198,0,1,0,0
0.71227664,0.28038368,0.0073397267,0,1,0,0
